ply
format ascii 1.0
element vertex 1316
property float x
property float y
property float z
property uchar red
property uchar green
property uchar blue
end_header
169.0000 62.0000 287.9612 255 255 255
170.0000 62.0000 281.3427 255 255 255
171.0000 62.0000 274.2726 255 255 255
172.0000 62.0000 267.2769 255 255 255
173.0000 62.0000 260.7726 255 255 255
174.0000 62.0000 254.1190 255 255 255
175.0000 62.0000 247.3198 255 255 255
176.0000 62.0000 240.8512 255 255 255
177.0000 62.0000 234.7301 255 255 255
178.0000 62.0000 228.2111 255 255 255
179.0000 62.0000 221.8180 255 255 255
180.0000 62.0000 215.9903 255 255 255
181.0000 62.0000 209.8952 255 255 255
182.0000 62.0000 203.7047 255 255 255
183.0000 62.0000 197.8497 255 255 255
184.0000 62.0000 192.2143 255 255 255
185.0000 62.0000 186.3531 255 255 255
186.0000 62.0000 180.6559 255 255 255
187.0000 62.0000 175.5976 255 255 255
188.0000 62.0000 170.3961 255 255 255
189.0000 62.0000 165.1749 255 255 255
190.0000 62.0000 160.3813 255 255 255
191.0000 62.0000 155.9274 255 255 255
192.0000 62.0000 151.1907 255 255 255
193.0000 62.0000 146.8696 255 255 255
194.0000 62.0000 142.7925 255 255 255
195.0000 62.0000 138.6371 255 255 255
196.0000 62.0000 134.4101 255 255 255
197.0000 62.0000 130.3397 255 255 255
198.0000 62.0000 126.3968 255 255 255
199.0000 62.0000 122.0015 255 255 255
200.0000 62.0000 117.7598 255 255 255
201.0000 62.0000 113.8195 255 255 255
202.0000 62.0000 109.7074 255 255 255
203.0000 62.0000 105.7934 255 255 255
204.0000 62.0000 102.2755 255 255 255
205.0000 62.0000 98.9680 255 255 255
206.0000 62.0000 95.6774 255 255 255
207.0000 62.0000 92.5296 255 255 255
208.0000 62.0000 89.6059 255 255 255
209.0000 62.0000 86.5086 255 255 255
210.0000 62.0000 83.3442 255 255 255
211.0000 62.0000 80.3178 255 255 255
212.0000 62.0000 77.3870 255 255 255
213.0000 62.0000 74.3014 255 255 255
214.0000 62.0000 71.5979 255 255 255
215.0000 62.0000 68.9636 255 255 255
216.0000 62.0000 66.5186 255 255 255
217.0000 62.0000 64.4820 255 255 255
218.0000 62.0000 62.8297 255 255 255
219.0000 62.0000 61.2649 255 255 255
220.0000 62.0000 58.7930 255 255 255
221.0000 62.0000 56.9792 255 255 255
222.0000 62.0000 55.1924 255 255 255
223.0000 62.0000 55.9207 255 255 255
0.0000 63.0000 357.9374 255 255 255
1.0000 63.0000 350.4866 255 255 255
2.0000 63.0000 351.7109 255 255 255
3.0000 63.0000 352.2199 255 255 255
4.0000 63.0000 352.3274 255 255 255
5.0000 63.0000 353.0456 255 255 255
6.0000 63.0000 353.6205 255 255 255
7.0000 63.0000 353.7396 255 255 255
8.0000 63.0000 353.6047 255 255 255
9.0000 63.0000 353.6328 255 255 255
10.0000 63.0000 353.4658 255 255 255
11.0000 63.0000 352.9205 255 255 255
12.0000 63.0000 352.5897 255 255 255
13.0000 63.0000 352.1422 255 255 255
14.0000 63.0000 351.5496 255 255 255
15.0000 63.0000 350.9778 255 255 255
16.0000 63.0000 350.4272 255 255 255
17.0000 63.0000 349.4764 255 255 255
18.0000 63.0000 348.5251 255 255 255
19.0000 63.0000 347.5564 255 255 255
20.0000 63.0000 346.5459 255 255 255
21.0000 63.0000 345.4747 255 255 255
22.0000 63.0000 344.5463 255 255 255
23.0000 63.0000 343.8669 255 255 255
24.0000 63.0000 343.1522 255 255 255
25.0000 63.0000 342.6475 255 255 255
26.0000 63.0000 342.3186 255 255 255
27.0000 63.0000 342.0209 255 255 255
28.0000 63.0000 341.8239 255 255 255
29.0000 63.0000 341.7788 255 255 255
30.0000 63.0000 341.8518 255 255 255
31.0000 63.0000 341.9677 255 255 255
32.0000 63.0000 342.0417 255 255 255
33.0000 63.0000 342.3068 255 255 255
34.0000 63.0000 342.5953 255 255 255
35.0000 63.0000 343.0304 255 255 255
36.0000 63.0000 343.6269 255 255 255
37.0000 63.0000 344.2717 255 255 255
38.0000 63.0000 345.0053 255 255 255
39.0000 63.0000 345.8022 255 255 255
40.0000 63.0000 346.5842 255 255 255
41.0000 63.0000 347.4249 255 255 255
42.0000 63.0000 348.3206 255 255 255
43.0000 63.0000 349.1642 255 255 255
44.0000 63.0000 349.9343 255 255 255
45.0000 63.0000 350.7828 255 255 255
46.0000 63.0000 351.6278 255 255 255
47.0000 63.0000 352.4758 255 255 255
48.0000 63.0000 353.3297 255 255 255
49.0000 63.0000 354.2735 255 255 255
50.0000 63.0000 355.2714 255 255 255
51.0000 63.0000 356.2531 255 255 255
52.0000 63.0000 357.2870 255 255 255
53.0000 63.0000 358.4314 255 255 255
54.0000 63.0000 359.3647 255 255 255
55.0000 63.0000 360.4059 255 255 255
56.0000 63.0000 361.5297 255 255 255
57.0000 63.0000 362.7702 255 255 255
58.0000 63.0000 364.1687 255 255 255
59.0000 63.0000 365.7485 255 255 255
60.0000 63.0000 367.5701 255 255 255
61.0000 63.0000 369.3961 255 255 255
62.0000 63.0000 371.3477 255 255 255
63.0000 63.0000 373.5166 255 255 255
64.0000 63.0000 375.7162 255 255 255
65.0000 63.0000 377.8349 255 255 255
66.0000 63.0000 380.1622 255 255 255
67.0000 63.0000 382.5106 255 255 255
68.0000 63.0000 384.7446 255 255 255
69.0000 63.0000 387.3388 255 255 255
70.0000 63.0000 390.2420 255 255 255
71.0000 63.0000 393.0822 255 255 255
72.0000 63.0000 395.9018 255 255 255
73.0000 63.0000 399.1669 255 255 255
74.0000 63.0000 402.4878 255 255 255
75.0000 63.0000 405.4439 255 255 255
76.0000 63.0000 407.9029 255 255 255
77.0000 63.0000 410.1403 255 255 255
78.0000 63.0000 412.9882 255 255 255
79.0000 63.0000 416.9025 255 255 255
80.0000 63.0000 420.4333 0 0 0
81.0000 63.0000 422.0086 0 0 0
82.0000 63.0000 422.0940 0 0 0
83.0000 63.0000 422.3116 0 0 0
84.0000 63.0000 421.9343 0 0 0
85.0000 63.0000 421.7653 0 0 0
86.0000 63.0000 421.9511 0 0 0
87.0000 63.0000 421.0214 0 0 0
88.0000 63.0000 419.5451 255 255 255
89.0000 63.0000 418.5801 255 255 255
90.0000 63.0000 418.2015 255 255 255
91.0000 63.0000 418.0077 255 255 255
92.0000 63.0000 417.9151 255 255 255
93.0000 63.0000 418.0094 255 255 255
94.0000 63.0000 418.4511 255 255 255
95.0000 63.0000 418.8932 255 255 255
96.0000 63.0000 419.2710 255 255 255
97.0000 63.0000 420.1777 255 255 255
98.0000 63.0000 421.6494 255 255 255
99.0000 63.0000 423.1392 255 255 255
100.0000 63.0000 426.7782 255 255 255
101.0000 63.0000 429.7784 0 0 0
102.0000 63.0000 432.7350 0 0 0
103.0000 63.0000 434.4649 0 0 0
104.0000 63.0000 435.9611 0 0 0
105.0000 63.0000 437.5702 0 0 0
106.0000 63.0000 438.7726 0 0 0
107.0000 63.0000 439.3402 0 0 0
108.0000 63.0000 439.9024 0 0 0
109.0000 63.0000 440.4954 0 0 0
110.0000 63.0000 441.0504 0 0 0
111.0000 63.0000 441.5337 0 0 0
112.0000 63.0000 441.8318 0 0 0
113.0000 63.0000 442.0947 0 0 0
114.0000 63.0000 442.2616 0 0 0
115.0000 63.0000 442.0916 0 0 0
116.0000 63.0000 441.9343 0 0 0
117.0000 63.0000 442.1389 0 0 0
118.0000 63.0000 442.4248 0 0 0
119.0000 63.0000 442.6814 0 0 0
120.0000 63.0000 442.9179 0 0 0
121.0000 63.0000 442.8199 0 0 0
122.0000 63.0000 442.8358 0 0 0
123.0000 63.0000 442.9193 0 0 0
124.0000 63.0000 442.9856 0 0 0
125.0000 63.0000 443.0202 0 0 0
126.0000 63.0000 442.7910 0 0 0
127.0000 63.0000 442.2473 0 0 0
128.0000 63.0000 441.8914 0 0 0
129.0000 63.0000 441.2509 0 0 0
130.0000 63.0000 440.8025 255 255 255
131.0000 63.0000 440.2159 255 255 255
132.0000 63.0000 438.9562 255 255 255
133.0000 63.0000 437.5172 255 255 255
134.0000 63.0000 436.0626 255 255 255
135.0000 63.0000 434.8079 255 255 255
136.0000 63.0000 433.7285 255 255 255
137.0000 63.0000 432.1869 255 255 255
138.0000 63.0000 430.5422 255 255 255
139.0000 63.0000 429.0882 255 255 255
140.0000 63.0000 427.6101 255 255 255
141.0000 63.0000 425.8158 255 255 255
142.0000 63.0000 423.7392 255 255 255
143.0000 63.0000 421.4657 255 255 255
144.0000 63.0000 419.1306 255 255 255
145.0000 63.0000 416.7653 255 255 255
146.0000 63.0000 414.3710 255 255 255
147.0000 63.0000 411.6978 255 255 255
148.0000 63.0000 408.6752 255 255 255
149.0000 63.0000 405.3508 255 255 255
150.0000 63.0000 401.4290 255 255 255
151.0000 63.0000 397.0465 255 255 255
152.0000 63.0000 392.7647 255 255 255
153.0000 63.0000 387.9928 255 255 255
154.0000 63.0000 382.8286 255 255 255
155.0000 63.0000 377.7396 255 255 255
156.0000 63.0000 372.7260 255 255 255
157.0000 63.0000 367.0737 255 255 255
158.0000 63.0000 361.3334 255 255 255
159.0000 63.0000 355.7852 255 255 255
160.0000 63.0000 349.9219 255 255 255
161.0000 63.0000 343.7151 255 255 255
162.0000 63.0000 337.6123 255 255 255
163.0000 63.0000 331.6495 255 255 255
164.0000 63.0000 325.1195 255 255 255
165.0000 63.0000 318.3880 255 255 255
166.0000 63.0000 312.0727 255 255 255
167.0000 63.0000 305.3932 255 255 255
168.0000 63.0000 298.4247 255 255 255
169.0000 63.0000 291.6447 255 255 255
170.0000 63.0000 284.9866 255 255 255
171.0000 63.0000 277.8762 255 255 255
172.0000 63.0000 270.8466 255 255 255
173.0000 63.0000 264.3196 255 255 255
174.0000 63.0000 257.6276 255 255 255
175.0000 63.0000 250.7793 255 255 255
176.0000 63.0000 244.2664 255 255 255
177.0000 63.0000 238.1042 255 255 255
178.0000 63.0000 231.5382 255 255 255
179.0000 63.0000 225.1165 255 255 255
180.0000 63.0000 219.2563 255 255 255
181.0000 63.0000 213.1291 255 255 255
182.0000 63.0000 206.8997 255 255 255
183.0000 63.0000 201.0025 255 255 255
184.0000 63.0000 195.3295 255 255 255
185.0000 63.0000 189.4329 255 255 255
186.0000 63.0000 183.6925 255 255 255
187.0000 63.0000 178.5959 255 255 255
188.0000 63.0000 173.3518 255 255 255
189.0000 63.0000 168.0875 255 255 255
190.0000 63.0000 163.2521 255 255 255
191.0000 63.0000 158.7544 255 255 255
192.0000 63.0000 153.9761 255 255 255
193.0000 63.0000 149.6100 255 255 255
194.0000 63.0000 145.4848 255 255 255
195.0000 63.0000 141.2806 255 255 255
196.0000 63.0000 137.0033 255 255 255
197.0000 63.0000 132.8788 255 255 255
198.0000 63.0000 128.8729 255 255 255
199.0000 63.0000 124.3982 255 255 255
200.0000 63.0000 120.0826 255 255 255
201.0000 63.0000 116.0763 255 255 255
202.0000 63.0000 111.8968 255 255 255
203.0000 63.0000 107.9232 255 255 255
204.0000 63.0000 104.3472 255 255 255
205.0000 63.0000 100.9279 255 255 255
206.0000 63.0000 97.5945 255 255 255
207.0000 63.0000 94.4290 255 255 255
208.0000 63.0000 91.5073 255 255 255
209.0000 63.0000 88.4078 255 255 255
210.0000 63.0000 85.2409 255 255 255
211.0000 63.0000 82.2090 255 255 255
212.0000 63.0000 79.2572 255 255 255
213.0000 63.0000 76.1297 255 255 255
214.0000 63.0000 73.3813 255 255 255
215.0000 63.0000 70.7174 255 255 255
216.0000 63.0000 68.2307 255 255 255
217.0000 63.0000 66.1294 255 255 255
218.0000 63.0000 64.4170 255 255 255
219.0000 63.0000 62.8173 255 255 255
220.0000 63.0000 60.3173 255 255 255
221.0000 63.0000 58.5123 255 255 255
222.0000 63.0000 56.7037 255 255 255
223.0000 63.0000 57.4413 255 255 255
0.0000 64.0000 362.4187 255 255 255
1.0000 64.0000 354.9094 255 255 255
2.0000 64.0000 356.1763 255 255 255
3.0000 64.0000 356.6999 255 255 255
4.0000 64.0000 356.8116 255 255 255
5.0000 64.0000 357.5354 255 255 255
6.0000 64.0000 358.1275 255 255 255
7.0000 64.0000 358.2662 255 255 255
8.0000 64.0000 358.1484 255 255 255
9.0000 64.0000 358.1850 255 255 255
10.0000 64.0000 358.0493 255 255 255
11.0000 64.0000 357.5417 255 255 255
12.0000 64.0000 357.2421 255 255 255
13.0000 64.0000 356.8216 255 255 255
14.0000 64.0000 356.2540 255 255 255
15.0000 64.0000 355.6988 255 255 255
16.0000 64.0000 355.1547 255 255 255
17.0000 64.0000 354.2164 255 255 255
18.0000 64.0000 353.2737 255 255 255
19.0000 64.0000 352.3040 255 255 255
20.0000 64.0000 351.2897 255 255 255
21.0000 64.0000 350.2067 255 255 255
22.0000 64.0000 349.2586 255 255 255
23.0000 64.0000 348.5598 255 255 255
24.0000 64.0000 347.8214 255 255 255
25.0000 64.0000 347.2964 255 255 255
26.0000 64.0000 346.9447 255 255 255
27.0000 64.0000 346.6223 255 255 255
28.0000 64.0000 346.4005 255 255 255
29.0000 64.0000 346.3328 255 255 255
30.0000 64.0000 346.3837 255 255 255
31.0000 64.0000 346.4827 255 255 255
32.0000 64.0000 346.5380 255 255 255
33.0000 64.0000 346.7870 255 255 255
34.0000 64.0000 347.0587 255 255 255
35.0000 64.0000 347.4741 255 255 255
36.0000 64.0000 348.0480 255 255 255
37.0000 64.0000 348.6679 255 255 255
38.0000 64.0000 349.3735 255 255 255
39.0000 64.0000 350.1419 255 255 255
40.0000 64.0000 350.8920 255 255 255
41.0000 64.0000 351.7039 255 255 255
42.0000 64.0000 352.5689 255 255 255
43.0000 64.0000 353.3824 255 255 255
44.0000 64.0000 354.1270 255 255 255
45.0000 64.0000 354.9517 255 255 255
46.0000 64.0000 355.7781 255 255 255
47.0000 64.0000 356.6083 255 255 255
48.0000 64.0000 357.4468 255 255 255
49.0000 64.0000 358.3721 255 255 255
50.0000 64.0000 359.3482 255 255 255
51.0000 64.0000 360.3112 255 255 255
52.0000 64.0000 361.3311 255 255 255
53.0000 64.0000 362.4583 255 255 255
54.0000 64.0000 363.3889 255 255 255
55.0000 64.0000 364.4189 255 255 255
56.0000 64.0000 365.5268 255 255 255
57.0000 64.0000 366.7523 255 255 255
58.0000 64.0000 368.1318 255 255 255
59.0000 64.0000 369.6790 255 255 255
60.0000 64.0000 371.4670 255 255 255
61.0000 64.0000 373.2629 255 255 255
62.0000 64.0000 375.1691 255 255 255
63.0000 64.0000 377.2828 255 255 255
64.0000 64.0000 379.4371 255 255 255
65.0000 64.0000 381.5247 255 255 255
66.0000 64.0000 383.8140 255 255 255
67.0000 64.0000 386.1000 255 255 255
68.0000 64.0000 388.2814 255 255 255
69.0000 64.0000 390.8363 255 255 255
70.0000 64.0000 393.6874 255 255 255
71.0000 64.0000 396.4731 255 255 255
72.0000 64.0000 399.2332 255 255 255
73.0000 64.0000 402.4200 255 255 255
74.0000 64.0000 405.6974 255 255 255
75.0000 64.0000 408.6882 255 255 255
76.0000 64.0000 411.2059 255 255 255
77.0000 64.0000 413.5687 255 255 255
78.0000 64.0000 416.3355 255 255 255
79.0000 64.0000 419.9814 255 255 255
80.0000 64.0000 423.4422 0 0 0
81.0000 64.0000 425.0075 0 0 0
82.0000 64.0000 425.2728 0 0 0
83.0000 64.0000 425.5848 0 0 0
84.0000 64.0000 425.3046 0 0 0
85.0000 64.0000 425.1603 0 0 0
86.0000 64.0000 425.6656 0 0 0
87.0000 64.0000 424.8576 0 0 0
88.0000 64.0000 424.2234 255 255 255
89.0000 64.0000 423.9861 255 255 255
90.0000 64.0000 423.6898 255 255 255
91.0000 64.0000 422.8380 255 255 255
92.0000 64.0000 422.3900 255 255 255
93.0000 64.0000 422.1844 255 255 255
94.0000 64.0000 422.2038 255 255 255
95.0000 64.0000 422.4533 255 255 255
96.0000 64.0000 422.5020 255 255 255
97.0000 64.0000 423.0408 255 255 255
98.0000 64.0000 424.2411 255 255 255
99.0000 64.0000 425.7949 255 255 255
100.0000 64.0000 428.9421 255 255 255
101.0000 64.0000 432.9807 0 0 0
102.0000 64.0000 435.7939 0 0 0
103.0000 64.0000 437.5040 0 0 0
104.0000 64.0000 438.9300 0 0 0
105.0000 64.0000 440.4975 0 0 0
106.0000 64.0000 441.7431 0 0 0
107.0000 64.0000 442.4408 0 0 0
108.0000 64.0000 443.0482 0 0 0
109.0000 64.0000 443.6228 0 0 0
110.0000 64.0000 444.1786 0 0 0
111.0000 64.0000 444.6686 0 0 0
112.0000 64.0000 444.9993 0 0 0
113.0000 64.0000 445.3080 0 0 0
114.0000 64.0000 445.4976 0 0 0
115.0000 64.0000 445.5100 0 0 0
116.0000 64.0000 445.5763 0 0 0
117.0000 64.0000 445.9091 0 0 0
118.0000 64.0000 446.2526 0 0 0
119.0000 64.0000 446.3861 0 0 0
120.0000 64.0000 445.3490 0 0 0
121.0000 64.0000 444.5964 0 0 0
122.0000 64.0000 445.1708 0 0 0
123.0000 64.0000 445.5313 0 0 0
124.0000 64.0000 445.6877 0 0 0
125.0000 64.0000 445.7633 0 0 0
126.0000 64.0000 446.2590 0 0 0
127.0000 64.0000 445.7318 255 255 255
128.0000 64.0000 445.5389 255 255 255
129.0000 64.0000 445.5750 255 255 255
130.0000 64.0000 444.6220 255 255 255
131.0000 64.0000 443.7519 255 255 255
132.0000 64.0000 442.6854 255 255 255
133.0000 64.0000 441.2198 255 255 255
134.0000 64.0000 439.6700 255 255 255
135.0000 64.0000 438.4255 255 255 255
136.0000 64.0000 437.3474 255 255 255
137.0000 64.0000 435.7653 255 255 255
138.0000 64.0000 434.0526 255 255 255
139.0000 64.0000 432.5849 255 255 255
140.0000 64.0000 431.1225 255 255 255
141.0000 64.0000 429.3477 255 255 255
142.0000 64.0000 427.3003 255 255 255
143.0000 64.0000 425.0625 255 255 255
144.0000 64.0000 422.7810 255 255 255
145.0000 64.0000 420.4183 255 255 255
146.0000 64.0000 418.0050 255 255 255
147.0000 64.0000 415.3348 255 255 255
148.0000 64.0000 412.3667 255 255 255
149.0000 64.0000 409.1136 255 255 255
150.0000 64.0000 405.2441 255 255 255
151.0000 64.0000 400.8980 255 255 255
152.0000 64.0000 396.6599 255 255 255
153.0000 64.0000 391.9149 255 255 255
154.0000 64.0000 386.5918 255 255 255
155.0000 64.0000 381.5314 255 255 255
156.0000 64.0000 376.5072 255 255 255
157.0000 64.0000 370.8669 255 255 255
158.0000 64.0000 365.1400 255 255 255
159.0000 64.0000 359.5653 255 255 255
160.0000 64.0000 353.6518 255 255 255
161.0000 64.0000 347.4109 255 255 255
162.0000 64.0000 341.2852 255 255 255
163.0000 64.0000 335.3039 255 255 255
164.0000 64.0000 328.7602 255 255 255
165.0000 64.0000 322.0450 255 255 255
166.0000 64.0000 315.7401 255 255 255
167.0000 64.0000 309.0492 255 255 255
168.0000 64.0000 302.0566 255 255 255
169.0000 64.0000 295.2449 255 255 255
170.0000 64.0000 288.5373 255 255 255
171.0000 64.0000 281.3739 255 255 255
172.0000 64.0000 274.2981 255 255 255
173.0000 64.0000 267.7375 255 255 255
174.0000 64.0000 261.0024 255 255 255
175.0000 64.0000 254.1037 255 255 255
176.0000 64.0000 247.5466 255 255 255
177.0000 64.0000 241.3447 255 255 255
178.0000 64.0000 234.7312 255 255 255
179.0000 64.0000 228.2780 255 255 255
180.0000 64.0000 222.3832 255 255 255
181.0000 64.0000 216.2229 255 255 255
182.0000 64.0000 209.9545 255 255 255
183.0000 64.0000 204.0137 255 255 255
184.0000 64.0000 198.3000 255 255 255
185.0000 64.0000 192.3651 255 255 255
186.0000 64.0000 186.5795 255 255 255
187.0000 64.0000 181.4449 255 255 255
188.0000 64.0000 176.1578 255 255 255
189.0000 64.0000 170.8487 255 255 255
190.0000 64.0000 165.9704 255 255 255
191.0000 64.0000 161.4287 255 255 255
192.0000 64.0000 156.6071 255 255 255
193.0000 64.0000 152.1954 255 255 255
194.0000 64.0000 148.0247 255 255 255
195.0000 64.0000 143.7748 255 255 255
196.0000 64.0000 139.4513 255 255 255
197.0000 64.0000 135.2793 255 255 255
198.0000 64.0000 131.2207 255 255 255
199.0000 64.0000 126.6787 255 255 255
200.0000 64.0000 122.2992 255 255 255
201.0000 64.0000 118.2316 255 255 255
202.0000 64.0000 113.9880 255 255 255
203.0000 64.0000 109.9567 255 255 255
204.0000 64.0000 106.3323 255 255 255
205.0000 64.0000 102.8103 255 255 255
206.0000 64.0000 99.4168 255 255 255
207.0000 64.0000 96.2301 255 255 255
208.0000 64.0000 93.3074 255 255 255
209.0000 64.0000 90.2044 255 255 255
210.0000 64.0000 87.0364 255 255 255
211.0000 64.0000 84.0037 255 255 255
212.0000 64.0000 81.0383 255 255 255
213.0000 64.0000 77.8759 255 255 255
214.0000 64.0000 75.0891 255 255 255
215.0000 64.0000 72.4004 255 255 255
216.0000 64.0000 69.8745 255 255 255
217.0000 64.0000 67.7091 255 255 255
218.0000 64.0000 65.9398 255 255 255
219.0000 64.0000 64.3103 255 255 255
220.0000 64.0000 61.7814 255 255 255
221.0000 64.0000 59.9906 255 255 255
222.0000 64.0000 58.1684 255 255 255
223.0000 64.0000 58.9038 255 255 255
0.0000 65.0000 366.6849 255 255 255
1.0000 65.0000 359.1271 255 255 255
2.0000 65.0000 360.4278 255 255 255
3.0000 65.0000 360.9644 255 255 255
4.0000 65.0000 361.0846 255 255 255
5.0000 65.0000 361.8138 255 255 255
6.0000 65.0000 362.4225 255 255 255
7.0000 65.0000 362.5795 255 255 255
8.0000 65.0000 362.4760 255 255 255
9.0000 65.0000 362.5156 255 255 255
10.0000 65.0000 362.4072 255 255 255
11.0000 65.0000 361.9366 255 255 255
12.0000 65.0000 361.6651 255 255 255
13.0000 65.0000 361.2679 255 255 255
14.0000 65.0000 360.7225 255 255 255
15.0000 65.0000 360.1818 255 255 255
16.0000 65.0000 359.6426 255 255 255
17.0000 65.0000 358.7147 255 255 255
18.0000 65.0000 357.7784 255 255 255
19.0000 65.0000 356.8068 255 255 255
20.0000 65.0000 355.7880 255 255 255
21.0000 65.0000 354.6932 255 255 255
22.0000 65.0000 353.7263 255 255 255
23.0000 65.0000 353.0084 255 255 255
24.0000 65.0000 352.2471 255 255 255
25.0000 65.0000 351.7019 255 255 255
26.0000 65.0000 351.3278 255 255 255
27.0000 65.0000 350.9817 255 255 255
28.0000 65.0000 350.7355 255 255 255
29.0000 65.0000 350.6454 255 255 255
30.0000 65.0000 350.6744 255 255 255
31.0000 65.0000 350.7562 255 255 255
32.0000 65.0000 350.7925 255 255 255
33.0000 65.0000 351.0255 255 255 255
34.0000 65.0000 351.2808 255 255 255
35.0000 65.0000 351.6762 255 255 255
36.0000 65.0000 352.2276 255 255 255
37.0000 65.0000 352.8233 255 255 255
38.0000 65.0000 353.5025 255 255 255
39.0000 65.0000 354.2445 255 255 255
40.0000 65.0000 354.9662 255 255 255
41.0000 65.0000 355.7522 255 255 255
42.0000 65.0000 356.5905 255 255 255
43.0000 65.0000 357.3770 255 255 255
44.0000 65.0000 358.0991 255 255 255
45.0000 65.0000 358.9027 255 255 255
46.0000 65.0000 359.7134 255 255 255
47.0000 65.0000 360.5281 255 255 255
48.0000 65.0000 361.3523 255 255 255
49.0000 65.0000 362.2607 255 255 255
50.0000 65.0000 363.2174 255 255 255
51.0000 65.0000 364.1643 255 255 255
52.0000 65.0000 365.1727 255 255 255
53.0000 65.0000 366.2852 255 255 255
54.0000 65.0000 367.2148 255 255 255
55.0000 65.0000 368.2355 255 255 255
56.0000 65.0000 369.3291 255 255 255
57.0000 65.0000 370.5402 255 255 255
58.0000 65.0000 371.9008 255 255 255
59.0000 65.0000 373.4198 255 255 255
60.0000 65.0000 375.1801 255 255 255
61.0000 65.0000 376.9485 255 255 255
62.0000 65.0000 378.8154 255 255 255
63.0000 65.0000 380.8828 255 255 255
64.0000 65.0000 382.9988 255 255 255
65.0000 65.0000 385.0568 255 255 255
66.0000 65.0000 387.3085 255 255 255
67.0000 65.0000 389.5539 255 255 255
68.0000 65.0000 391.6888 255 255 255
69.0000 65.0000 394.2015 255 255 255
70.0000 65.0000 397.0117 255 255 255
71.0000 65.0000 399.7669 255 255 255
72.0000 65.0000 402.4889 255 255 255
73.0000 65.0000 405.6154 255 255 255
74.0000 65.0000 408.8350 255 255 255
75.0000 65.0000 411.7863 255 255 255
76.0000 65.0000 414.2860 255 255 255
77.0000 65.0000 416.6982 255 255 255
78.0000 65.0000 419.5937 255 255 255
79.0000 65.0000 422.8506 255 255 255
80.0000 65.0000 426.3059 0 0 0
81.0000 65.0000 427.9035 0 0 0
82.0000 65.0000 428.3733 0 0 0
83.0000 65.0000 428.8532 0 0 0
84.0000 65.0000 428.9131 0 0 0
85.0000 65.0000 428.9774 0 0 0
86.0000 65.0000 429.8154 0 0 0
87.0000 65.0000 430.4979 0 0 0
88.0000 65.0000 431.0511 255 255 255
89.0000 65.0000 431.4799 0 0 0
90.0000 65.0000 431.9185 0 0 0
91.0000 65.0000 432.3479 0 0 0
92.0000 65.0000 432.4254 0 0 0
93.0000 65.0000 432.4781 0 0 0
94.0000 65.0000 432.4153 0 0 0
95.0000 65.0000 432.0934 0 0 0
96.0000 65.0000 431.0367 0 0 0
97.0000 65.0000 428.7991 255 255 255
98.0000 65.0000 428.0714 255 255 255
99.0000 65.0000 429.4618 255 255 255
100.0000 65.0000 432.3600 255 255 255
101.0000 65.0000 436.1856 0 0 0
102.0000 65.0000 438.6806 0 0 0
103.0000 65.0000 440.2650 0 0 0
104.0000 65.0000 441.5223 0 0 0
105.0000 65.0000 442.9865 0 0 0
106.0000 65.0000 444.2620 0 0 0
107.0000 65.0000 445.2124 0 0 0
108.0000 65.0000 445.9229 0 0 0
109.0000 65.0000 446.5611 0 0 0
110.0000 65.0000 447.1148 0 0 0
111.0000 65.0000 447.6072 0 0 0
112.0000 65.0000 448.0276 0 0 0
113.0000 65.0000 448.5050 0 0 0
114.0000 65.0000 448.9411 0 0 0
115.0000 65.0000 449.1839 0 0 0
116.0000 65.0000 448.2778 0 0 0
117.0000 65.0000 448.3435 0 0 0
118.0000 65.0000 449.8167 0 0 0
119.0000 65.0000 450.2030 0 0 0
120.0000 65.0000 450.1435 0 0 0
121.0000 65.0000 449.2167 0 0 0
122.0000 65.0000 448.6366 0 0 0
123.0000 65.0000 448.8961 0 0 0
124.0000 65.0000 450.0588 0 0 0
125.0000 65.0000 451.8651 255 255 255
126.0000 65.0000 452.1168 255 255 255
127.0000 65.0000 451.4688 255 255 255
128.0000 65.0000 450.7162 255 255 255
129.0000 65.0000 449.4286 255 255 255
130.0000 65.0000 447.7568 255 255 255
131.0000 65.0000 446.6658 255 255 255
132.0000 65.0000 445.3963 255 255 255
133.0000 65.0000 443.8992 255 255 255
134.0000 65.0000 442.3604 255 255 255
135.0000 65.0000 441.1928 255 255 255
136.0000 65.0000 440.0320 255 255 255
137.0000 65.0000 438.4008 255 255 255
138.0000 65.0000 436.6677 255 255 255
139.0000 65.0000 435.2438 255 255 255
140.0000 65.0000 433.8652 255 255 255
141.0000 65.0000 432.1829 255 255 255
142.0000 65.0000 430.2258 255 255 255
143.0000 65.0000 428.0608 255 255 255
144.0000 65.0000 425.8499 255 255 255
145.0000 65.0000 423.5287 255 255 255
146.0000 65.0000 421.1605 255 255 255
147.0000 65.0000 418.5823 255 255 255
148.0000 65.0000 415.7434 255 255 255
149.0000 65.0000 412.6188 255 255 255
150.0000 65.0000 408.8737 255 255 255
151.0000 65.0000 404.6401 255 255 255
152.0000 65.0000 400.4742 255 255 255
153.0000 65.0000 395.8026 255 255 255
154.0000 65.0000 390.4562 255 255 255
155.0000 65.0000 385.3474 255 255 255
156.0000 65.0000 380.3891 255 255 255
157.0000 65.0000 374.7645 255 255 255
158.0000 65.0000 368.9997 255 255 255
159.0000 65.0000 363.4026 255 255 255
160.0000 65.0000 357.4395 255 255 255
161.0000 65.0000 351.1530 255 255 255
162.0000 65.0000 344.9877 255 255 255
163.0000 65.0000 338.9690 255 255 255
164.0000 65.0000 332.3895 255 255 255
165.0000 65.0000 325.6670 255 255 255
166.0000 65.0000 319.3528 255 255 255
167.0000 65.0000 312.6350 255 255 255
168.0000 65.0000 305.6051 255 255 255
169.0000 65.0000 298.7524 255 255 255
170.0000 65.0000 291.9896 255 255 255
171.0000 65.0000 284.7674 255 255 255
172.0000 65.0000 277.6391 255 255 255
173.0000 65.0000 271.0382 255 255 255
174.0000 65.0000 264.2579 255 255 255
175.0000 65.0000 257.3103 255 255 255
176.0000 65.0000 250.7111 255 255 255
177.0000 65.0000 244.4717 255 255 255
178.0000 65.0000 237.8114 255 255 255
179.0000 65.0000 231.3240 255 255 255
180.0000 65.0000 225.3917 255 255 255
181.0000 65.0000 219.1959 255 255 255
182.0000 65.0000 212.8877 255 255 255
183.0000 65.0000 206.9018 255 255 255
184.0000 65.0000 201.1447 255 255 255
185.0000 65.0000 195.1671 255 255 255
186.0000 65.0000 189.3330 255 255 255
187.0000 65.0000 184.1596 255 255 255
188.0000 65.0000 178.8285 255 255 255
189.0000 65.0000 173.4728 255 255 255
190.0000 65.0000 168.5500 255 255 255
191.0000 65.0000 163.9638 255 255 255
192.0000 65.0000 159.0977 255 255 255
193.0000 65.0000 154.6394 255 255 255
194.0000 65.0000 150.4245 255 255 255
195.0000 65.0000 146.1306 255 255 255
196.0000 65.0000 141.7629 255 255 255
197.0000 65.0000 137.5472 255 255 255
198.0000 65.0000 133.4416 255 255 255
199.0000 65.0000 128.8401 255 255 255
200.0000 65.0000 124.4034 255 255 255
201.0000 65.0000 120.2775 255 255 255
202.0000 65.0000 115.9730 255 255 255
203.0000 65.0000 111.8873 255 255 255
204.0000 65.0000 108.2177 255 255 255
205.0000 65.0000 104.6560 255 255 255
206.0000 65.0000 101.1420 255 255 255
207.0000 65.0000 97.9367 255 255 255
208.0000 65.0000 95.0116 255 255 255
209.0000 65.0000 91.9036 255 255 255
210.0000 65.0000 88.7347 255 255 255
211.0000 65.0000 85.7032 255 255 255
212.0000 65.0000 82.7275 255 255 255
213.0000 65.0000 79.5327 255 255 255
214.0000 65.0000 76.7119 255 255 255
215.0000 65.0000 74.0027 255 255 255
216.0000 65.0000 71.4405 255 255 255
217.0000 65.0000 69.2145 255 255 255
218.0000 65.0000 67.3929 255 255 255
219.0000 65.0000 65.7370 255 255 255
220.0000 65.0000 63.1770 255 255 255
221.0000 65.0000 61.4035 255 255 255
222.0000 65.0000 59.5721 255 255 255
223.0000 65.0000 60.3048 255 255 255
0.0000 66.0000 371.1845 255 255 255
1.0000 66.0000 363.5608 255 255 255
2.0000 66.0000 364.8801 255 255 255
3.0000 66.0000 365.4271 255 255 255
4.0000 66.0000 365.5657 255 255 255
5.0000 66.0000 366.3028 255 255 255
6.0000 66.0000 366.9320 255 255 255
7.0000 66.0000 367.1105 255 255 255
8.0000 66.0000 367.0227 255 255 255
9.0000 66.0000 367.0673 255 255 255
10.0000 66.0000 366.9881 255 255 255
11.0000 66.0000 366.5569 255 255 255
12.0000 66.0000 366.3115 255 255 255
13.0000 66.0000 365.9341 255 255 255
14.0000 66.0000 365.4074 255 255 255
15.0000 66.0000 364.8788 255 255 255
16.0000 66.0000 364.3420 255 255 255
17.0000 66.0000 363.4224 255 255 255
18.0000 66.0000 362.4911 255 255 255
19.0000 66.0000 361.5165 255 255 255
20.0000 66.0000 360.4926 255 255 255
21.0000 66.0000 359.3861 255 255 255
22.0000 66.0000 358.4002 255 255 255
23.0000 66.0000 357.6625 255 255 255
24.0000 66.0000 356.8770 255 255 255
25.0000 66.0000 356.3101 255 255 255
26.0000 66.0000 355.9122 255 255 255
27.0000 66.0000 355.5407 255 255 255
28.0000 66.0000 355.2696 255 255 255
29.0000 66.0000 355.1570 255 255 255
30.0000 66.0000 355.1635 255 255 255
31.0000 66.0000 355.2282 255 255 255
32.0000 66.0000 355.2459 255 255 255
33.0000 66.0000 355.4628 255 255 255
34.0000 66.0000 355.7020 255 255 255
35.0000 66.0000 356.0781 255 255 255
36.0000 66.0000 356.6074 255 255 255
37.0000 66.0000 357.1790 255 255 255
38.0000 66.0000 357.8315 255 255 255
39.0000 66.0000 358.5467 255 255 255
40.0000 66.0000 359.2392 255 255 255
41.0000 66.0000 359.9991 255 255 255
42.0000 66.0000 360.8093 255 255 255
43.0000 66.0000 361.5677 255 255 255
44.0000 66.0000 362.2668 255 255 255
45.0000 66.0000 363.0486 255 255 255
46.0000 66.0000 363.8436 255 255 255
47.0000 66.0000 364.6436 255 255 255
48.0000 66.0000 365.4550 255 255 255
49.0000 66.0000 366.3491 255 255 255
50.0000 66.0000 367.2899 255 255 255
51.0000 66.0000 368.2245 255 255 255
52.0000 66.0000 369.2248 255 255 255
53.0000 66.0000 370.3264 255 255 255
54.0000 66.0000 371.2583 255 255 255
55.0000 66.0000 372.2740 255 255 255
56.0000 66.0000 373.3590 255 255 255
57.0000 66.0000 374.5618 255 255 255
58.0000 66.0000 375.9094 255 255 255
59.0000 66.0000 377.4096 255 255 255
60.0000 66.0000 379.1546 255 255 255
61.0000 66.0000 380.9039 255 255 255
62.0000 66.0000 382.7389 255 255 255
63.0000 66.0000 384.7664 255 255 255
64.0000 66.0000 386.8436 255 255 255
65.0000 66.0000 388.8638 255 255 255
66.0000 66.0000 391.0682 255 255 255
67.0000 66.0000 393.2769 255 255 255
68.0000 66.0000 395.3807 255 255 255
69.0000 66.0000 397.8477 255 255 255
70.0000 66.0000 400.6123 255 255 255
71.0000 66.0000 403.3340 255 255 255
72.0000 66.0000 406.0172 255 255 255
73.0000 66.0000 409.0887 255 255 255
74.0000 66.0000 412.2526 255 255 255
75.0000 66.0000 415.1743 255 255 255
76.0000 66.0000 417.6944 255 255 255
77.0000 66.0000 420.1485 255 255 255
78.0000 66.0000 423.1326 255 255 255
79.0000 66.0000 426.4395 255 255 255
80.0000 66.0000 429.6543 0 0 0
81.0000 66.0000 431.0740 0 0 0
82.0000 66.0000 431.6334 0 0 0
83.0000 66.0000 432.3648 0 0 0
84.0000 66.0000 432.9612 0 0 0
85.0000 66.0000 433.6052 0 0 0
86.0000 66.0000 434.7947 0 0 0
87.0000 66.0000 436.0738 0 0 0
88.0000 66.0000 436.7885 0 0 0
89.0000 66.0000 437.2166 0 0 0
90.0000 66.0000 437.7177 0 0 0
91.0000 66.0000 438.3179 0 0 0
92.0000 66.0000 438.8356 0 0 0
93.0000 66.0000 439.1840 0 0 0
94.0000 66.0000 439.4204 0 0 0
95.0000 66.0000 439.3259 0 0 0
96.0000 66.0000 439.0600 0 0 0
97.0000 66.0000 439.0363 0 0 0
98.0000 66.0000 438.6043 0 0 0
99.0000 66.0000 438.5134 0 0 0
100.0000 66.0000 439.3991 0 0 0
101.0000 66.0000 440.8317 0 0 0
102.0000 66.0000 442.3303 0 0 0
103.0000 66.0000 443.9193 0 0 0
104.0000 66.0000 445.1194 0 0 0
105.0000 66.0000 446.3487 0 0 0
106.0000 66.0000 447.5274 0 0 0
107.0000 66.0000 448.4467 0 0 0
108.0000 66.0000 449.1091 0 0 0
109.0000 66.0000 449.6723 0 0 0
110.0000 66.0000 450.0876 0 0 0
111.0000 66.0000 450.6327 0 0 0
112.0000 66.0000 450.7429 0 0 0
113.0000 66.0000 451.1395 0 0 0
114.0000 66.0000 451.3452 0 0 0
115.0000 66.0000 450.9866 0 0 0
116.0000 66.0000 450.9781 0 0 0
117.0000 66.0000 452.2332 0 0 0
118.0000 66.0000 454.9828 255 255 255
119.0000 66.0000 455.8660 255 255 255
120.0000 66.0000 456.1185 255 255 255
121.0000 66.0000 456.4463 255 255 255
122.0000 66.0000 456.9257 0 0 0
123.0000 66.0000 457.2653 0 0 0
124.0000 66.0000 457.2969 0 0 0
125.0000 66.0000 457.6411 0 0 0
126.0000 66.0000 457.6931 0 0 0
127.0000 66.0000 456.9347 0 0 0
128.0000 66.0000 455.8405 0 0 0
129.0000 66.0000 453.9277 255 255 255
130.0000 66.0000 451.3814 255 255 255
131.0000 66.0000 449.7269 255 255 255
132.0000 66.0000 448.2397 255 255 255
133.0000 66.0000 446.6134 255 255 255
134.0000 66.0000 445.0344 255 255 255
135.0000 66.0000 443.7354 255 255 255
136.0000 66.0000 442.4515 255 255 255
137.0000 66.0000 440.8535 255 255 255
138.0000 66.0000 439.1527 255 255 255
139.0000 66.0000 437.7770 255 255 255
140.0000 66.0000 436.4912 255 255 255
141.0000 66.0000 434.9030 255 255 255
142.0000 66.0000 433.0274 255 255 255
143.0000 66.0000 430.9527 255 255 255
144.0000 66.0000 428.8664 255 255 255
145.0000 66.0000 426.6922 255 255 255
146.0000 66.0000 424.4547 255 255 255
147.0000 66.0000 422.0128 255 255 255
148.0000 66.0000 419.2504 255 255 255
149.0000 66.0000 416.1332 255 255 255
150.0000 66.0000 412.4065 255 255 255
151.0000 66.0000 408.2925 255 255 255
152.0000 66.0000 404.2485 255 255 255
153.0000 66.0000 399.7573 255 255 255
154.0000 66.0000 394.5424 255 255 255
155.0000 66.0000 389.4213 255 255 255
156.0000 66.0000 384.5135 255 255 255
157.0000 66.0000 378.9726 255 255 255
158.0000 66.0000 373.1966 255 255 255
159.0000 66.0000 367.5205 255 255 255
160.0000 66.0000 361.4713 255 255 255
161.0000 66.0000 355.1408 255 255 255
162.0000 66.0000 348.9378 255 255 255
163.0000 66.0000 342.8837 255 255 255
164.0000 66.0000 336.2689 255 255 255
165.0000 66.0000 329.5397 255 255 255
166.0000 66.0000 323.2145 255 255 255
167.0000 66.0000 316.4706 255 255 255
168.0000 66.0000 309.4049 255 255 255
169.0000 66.0000 302.5117 255 255 255
170.0000 66.0000 295.6928 255 255 255
171.0000 66.0000 288.4084 255 255 255
172.0000 66.0000 281.2227 255 255 255
173.0000 66.0000 274.5764 255 255 255
174.0000 66.0000 267.7487 255 255 255
175.0000 66.0000 260.7523 255 255 255
176.0000 66.0000 254.1108 255 255 255
177.0000 66.0000 247.8335 255 255 255
178.0000 66.0000 241.1257 255 255 255
179.0000 66.0000 234.6006 255 255 255
180.0000 66.0000 228.6264 255 255 255
181.0000 66.0000 222.3897 255 255 255
182.0000 66.0000 216.0360 255 255 255
183.0000 66.0000 209.9990 255 255 255
184.0000 66.0000 204.1913 255 255 255
185.0000 66.0000 198.1623 255 255 255
186.0000 66.0000 192.2712 255 255 255
187.0000 66.0000 187.0527 255 255 255
188.0000 66.0000 181.6701 255 255 255
189.0000 66.0000 176.2592 255 255 255
190.0000 66.0000 171.2847 255 255 255
191.0000 66.0000 166.6485 255 255 255
192.0000 66.0000 161.7317 255 255 255
193.0000 66.0000 157.2206 255 255 255
194.0000 66.0000 152.9568 255 255 255
195.0000 66.0000 148.6129 255 255 255
196.0000 66.0000 144.1947 255 255 255
197.0000 66.0000 139.9312 255 255 255
198.0000 66.0000 135.7773 255 255 255
199.0000 66.0000 131.1174 255 255 255
200.0000 66.0000 126.6273 255 255 255
201.0000 66.0000 122.4439 255 255 255
202.0000 66.0000 118.0787 255 255 255
203.0000 66.0000 113.9382 255 255 255
204.0000 66.0000 110.2217 255 255 255
205.0000 66.0000 106.6148 255 255 255
206.0000 66.0000 103.0153 255 255 255
207.0000 66.0000 99.7427 255 255 255
208.0000 66.0000 96.8134 255 255 255
209.0000 66.0000 93.6970 255 255 255
210.0000 66.0000 90.5254 255 255 255
211.0000 66.0000 87.4969 255 255 255
212.0000 66.0000 84.5143 255 255 255
213.0000 66.0000 81.2881 255 255 255
214.0000 66.0000 78.4354 255 255 255
215.0000 66.0000 75.7084 255 255 255
216.0000 66.0000 73.1100 255 255 255
217.0000 66.0000 70.8209 255 255 255
218.0000 66.0000 68.9459 255 255 255
219.0000 66.0000 67.2637 255 255 255
220.0000 66.0000 64.6664 255 255 255
221.0000 66.0000 62.9415 255 255 255
222.0000 66.0000 61.0862 255 255 255
223.0000 66.0000 61.8133 255 255 255
0.0000 67.0000 375.6095 255 255 255
1.0000 67.0000 367.8771 255 255 255
2.0000 67.0000 369.1974 255 255 255
3.0000 67.0000 369.7515 255 255 255
4.0000 67.0000 369.9062 255 255 255
5.0000 67.0000 370.6504 255 255 255
6.0000 67.0000 371.2977 255 255 255
7.0000 67.0000 371.4966 255 255 255
8.0000 67.0000 371.4229 255 255 255
9.0000 67.0000 371.4688 255 255 255
10.0000 67.0000 371.4180 255 255 255
11.0000 67.0000 371.0297 255 255 255
12.0000 67.0000 370.8125 255 255 255
13.0000 67.0000 370.4555 255 255 255
14.0000 67.0000 369.9483 255 255 255
15.0000 67.0000 369.4333 255 255 255
16.0000 67.0000 368.9020 255 255 255
17.0000 67.0000 367.9935 255 255 255
18.0000 67.0000 367.0706 255 255 255
19.0000 67.0000 366.0971 255 255 255
20.0000 67.0000 365.0720 255 255 255
21.0000 67.0000 363.9577 255 255 255
22.0000 67.0000 362.9564 255 255 255
23.0000 67.0000 362.2010 255 255 255
24.0000 67.0000 361.3942 255 255 255
25.0000 67.0000 360.8061 255 255 255
26.0000 67.0000 360.3852 255 255 255
27.0000 67.0000 359.9886 255 255 255
28.0000 67.0000 359.6931 255 255 255
29.0000 67.0000 359.5586 255 255 255
30.0000 67.0000 359.5436 255 255 255
31.0000 67.0000 359.5912 255 255 255
32.0000 67.0000 359.5908 255 255 255
33.0000 67.0000 359.7918 255 255 255
34.0000 67.0000 360.0160 255 255 255
35.0000 67.0000 360.3745 255 255 255
36.0000 67.0000 360.8840 255 255 255
37.0000 67.0000 361.4343 255 255 255
38.0000 67.0000 362.0626 255 255 255
39.0000 67.0000 362.7524 255 255 255
40.0000 67.0000 363.4181 255 255 255
41.0000 67.0000 364.1538 255 255 255
42.0000 67.0000 364.9378 255 255 255
43.0000 67.0000 365.6695 255 255 255
44.0000 67.0000 366.3465 255 255 255
45.0000 67.0000 367.1081 255 255 255
46.0000 67.0000 367.8894 255 255 255
47.0000 67.0000 368.6779 255 255 255
48.0000 67.0000 369.4814 255 255 255
49.0000 67.0000 370.3679 255 255 255
50.0000 67.0000 371.3002 255 255 255
51.0000 67.0000 372.2297 255 255 255
52.0000 67.0000 373.2283 255 255 255
53.0000 67.0000 374.3241 255 255 255
54.0000 67.0000 375.2610 255 255 255
55.0000 67.0000 376.2746 255 255 255
56.0000 67.0000 377.3539 255 255 255
57.0000 67.0000 378.5498 255 255 255
58.0000 67.0000 379.8846 255 255 255
59.0000 67.0000 381.3653 255 255 255
60.0000 67.0000 383.0950 255 255 255
61.0000 67.0000 384.8241 255 255 255
62.0000 67.0000 386.6269 255 255 255
63.0000 67.0000 388.6135 255 255 255
64.0000 67.0000 390.6460 255 255 255
65.0000 67.0000 392.6158 255 255 255
66.0000 67.0000 394.7599 255 255 255
67.0000 67.0000 396.9395 255 255 255
68.0000 67.0000 399.0079 255 255 255
69.0000 67.0000 401.4211 255 255 255
70.0000 67.0000 404.1308 255 255 255
71.0000 67.0000 406.8055 255 255 255
72.0000 67.0000 409.4313 255 255 255
73.0000 67.0000 412.4200 255 255 255
74.0000 67.0000 415.4998 255 255 255
75.0000 67.0000 418.3849 255 255 255
76.0000 67.0000 420.9152 255 255 255
77.0000 67.0000 423.3838 255 255 255
78.0000 67.0000 426.3961 255 255 255
79.0000 67.0000 429.7576 255 255 255
80.0000 67.0000 432.9922 0 0 0
81.0000 67.0000 434.2664 0 0 0
82.0000 67.0000 434.7187 0 0 0
83.0000 67.0000 435.3877 0 0 0
84.0000 67.0000 436.4334 0 0 0
85.0000 67.0000 437.5092 0 0 0
86.0000 67.0000 438.9093 0 0 0
87.0000 67.0000 440.2805 0 0 0
88.0000 67.0000 441.1166 0 0 0
89.0000 67.0000 441.5467 0 0 0
90.0000 67.0000 442.0290 0 0 0
91.0000 67.0000 442.6524 0 0 0
92.0000 67.0000 443.2906 0 0 0
93.0000 67.0000 443.8500 0 0 0
94.0000 67.0000 444.3384 0 0 0
95.0000 67.0000 444.6794 0 0 0
96.0000 67.0000 444.8290 0 0 0
97.0000 67.0000 444.9636 0 0 0
98.0000 67.0000 444.8797 0 0 0
99.0000 67.0000 444.8222 0 0 0
100.0000 67.0000 445.2909 0 0 0
101.0000 67.0000 445.9908 0 0 0
102.0000 67.0000 446.6941 0 0 0
103.0000 67.0000 447.6453 0 0 0
104.0000 67.0000 448.8432 0 0 0
105.0000 67.0000 449.8738 0 0 0
106.0000 67.0000 450.9068 0 0 0
107.0000 67.0000 451.7899 0 0 0
108.0000 67.0000 452.5014 0 0 0
109.0000 67.0000 453.1119 0 0 0
110.0000 67.0000 453.4464 0 0 0
111.0000 67.0000 453.3770 0 0 0
112.0000 67.0000 452.7680 0 0 0
113.0000 67.0000 453.5605 0 0 0
114.0000 67.0000 454.2657 0 0 0
115.0000 67.0000 454.6997 0 0 0
116.0000 67.0000 455.3982 0 0 0
117.0000 67.0000 457.8109 255 255 255
118.0000 67.0000 459.8776 255 255 255
119.0000 67.0000 460.5711 255 255 255
120.0000 67.0000 460.7796 255 255 255
121.0000 67.0000 461.0239 255 255 255
122.0000 67.0000 461.4507 0 0 0
123.0000 67.0000 461.8899 0 0 0
124.0000 67.0000 461.7784 0 0 0
125.0000 67.0000 462.0225 0 0 0
126.0000 67.0000 462.0060 0 0 0
127.0000 67.0000 461.2315 0 0 0
128.0000 67.0000 460.0547 0 0 0
129.0000 67.0000 457.9410 255 255 255
130.0000 67.0000 455.0696 255 255 255
131.0000 67.0000 453.2550 255 255 255
132.0000 67.0000 451.5316 255 255 255
133.0000 67.0000 449.8197 255 255 255
134.0000 67.0000 448.1627 255 255 255
135.0000 67.0000 446.7179 255 255 255
136.0000 67.0000 445.4202 255 255 255
137.0000 67.0000 443.9308 255 255 255
138.0000 67.0000 442.2837 255 255 255
139.0000 67.0000 440.8720 255 255 255
140.0000 67.0000 439.5718 255 255 255
141.0000 67.0000 438.0228 255 255 255
142.0000 67.0000 436.2141 255 255 255
143.0000 67.0000 434.2520 255 255 255
144.0000 67.0000 432.3467 255 255 255
145.0000 67.0000 430.3981 255 255 255
146.0000 67.0000 428.3199 255 255 255
147.0000 67.0000 426.0208 255 255 255
148.0000 67.0000 423.3136 255 255 255
149.0000 67.0000 420.1258 255 255 255
150.0000 67.0000 416.3239 255 255 255
151.0000 67.0000 412.2796 255 255 255
152.0000 67.0000 408.3524 255 255 255
153.0000 67.0000 404.0468 255 255 255
154.0000 67.0000 398.9852 255 255 255
155.0000 67.0000 393.8536 255 255 255
156.0000 67.0000 388.9306 255 255 255
157.0000 67.0000 383.4201 255 255 255
158.0000 67.0000 377.6156 255 255 255
159.0000 67.0000 371.9276 255 255 255
160.0000 67.0000 365.8090 255 255 255
161.0000 67.0000 359.3687 255 255 255
162.0000 67.0000 353.1168 255 255 255
163.0000 67.0000 347.0152 255 255 255
164.0000 67.0000 340.3417 255 255 255
165.0000 67.0000 333.5761 255 255 255
166.0000 67.0000 327.2119 255 255 255
167.0000 67.0000 320.4192 255 255 255
168.0000 67.0000 313.2978 255 255 255
169.0000 67.0000 306.3462 255 255 255
170.0000 67.0000 299.4573 255 255 255
171.0000 67.0000 292.0959 255 255 255
172.0000 67.0000 284.8356 255 255 255
173.0000 67.0000 278.1270 255 255 255
174.0000 67.0000 271.2391 255 255 255
175.0000 67.0000 264.1853 255 255 255
176.0000 67.0000 257.4954 255 255 255
177.0000 67.0000 251.1758 255 255 255
178.0000 67.0000 244.4179 255 255 255
179.0000 67.0000 237.8513 255 255 255
180.0000 67.0000 231.8326 255 255 255
181.0000 67.0000 225.5504 255 255 255
182.0000 67.0000 219.1473 255 255 255
183.0000 67.0000 213.0579 255 255 255
184.0000 67.0000 207.1981 255 255 255
185.0000 67.0000 201.1155 255 255 255
186.0000 67.0000 195.1645 255 255 255
187.0000 67.0000 189.8972 255 255 255
188.0000 67.0000 184.4588 255 255 255
189.0000 67.0000 178.9891 255 255 255
190.0000 67.0000 173.9616 255 255 255
191.0000 67.0000 169.2754 255 255 255
192.0000 67.0000 164.3073 255 255 255
193.0000 67.0000 159.7434 255 255 255
194.0000 67.0000 155.4311 255 255 255
195.0000 67.0000 151.0377 255 255 255
196.0000 67.0000 146.5688 255 255 255
197.0000 67.0000 142.2572 255 255 255
198.0000 67.0000 138.0556 255 255 255
199.0000 67.0000 133.3387 255 255 255
200.0000 67.0000 128.7986 255 255 255
201.0000 67.0000 124.5612 255 255 255
202.0000 67.0000 120.1407 255 255 255
203.0000 67.0000 115.9494 255 255 255
204.0000 67.0000 112.1874 255 255 255
205.0000 67.0000 108.5361 255 255 255
206.0000 67.0000 104.8941 255 255 255
207.0000 67.0000 101.5166 255 255 255
208.0000 67.0000 98.5832 255 255 255
209.0000 67.0000 95.4558 255 255 255
210.0000 67.0000 92.2791 255 255 255
211.0000 67.0000 89.2522 255 255 255
212.0000 67.0000 86.2629 255 255 255
213.0000 67.0000 83.0046 255 255 255
214.0000 67.0000 80.1217 255 255 255
215.0000 67.0000 77.3795 255 255 255
216.0000 67.0000 74.7477 255 255 255
217.0000 67.0000 72.3987 255 255 255
218.0000 67.0000 70.4734 255 255 255
219.0000 67.0000 68.7653 255 255 255
220.0000 67.0000 66.1785 255 255 255
221.0000 67.0000 64.4808 255 255 255
222.0000 67.0000 62.5889 255 255 255
223.0000 67.0000 63.3114 255 255 255
0.0000 68.0000 379.6676 255 255 255
1.0000 68.0000 371.8332 255 255 255
2.0000 68.0000 373.1440 255 255 255
3.0000 68.0000 373.7113 255 255 255
4.0000 68.0000 373.8713 255 255 255
5.0000 68.0000 374.6286 255 255 255
6.0000 68.0000 375.2944 255 255 255
7.0000 68.0000 375.5132 255 255 255
8.0000 68.0000 375.4527 255 255 255
9.0000 68.0000 375.4961 255 255 255
10.0000 68.0000 375.4665 255 255 255
11.0000 68.0000 375.1128 255 255 255
12.0000 68.0000 374.9158 255 255 255
13.0000 68.0000 374.5704 255 255 255
14.0000 68.0000 374.0752 255 255 255
15.0000 68.0000 373.5683 255 255 255
16.0000 68.0000 373.0389 255 255 255
17.0000 68.0000 372.1375 255 255 255
18.0000 68.0000 371.2199 255 255 255
19.0000 68.0000 370.2464 255 255 255
20.0000 68.0000 369.2192 255 255 255
21.0000 68.0000 368.0978 255 255 255
22.0000 68.0000 367.0840 255 255 255
23.0000 68.0000 366.3141 255 255 255
24.0000 68.0000 365.4903 255 255 255
25.0000 68.0000 364.8846 255 255 255
26.0000 68.0000 364.4441 255 255 255
27.0000 68.0000 364.0261 255 255 255
28.0000 68.0000 363.7094 255 255 255
29.0000 68.0000 363.5562 255 255 255
30.0000 68.0000 363.5215 255 255 255
31.0000 68.0000 363.5533 255 255 255
32.0000 68.0000 363.5356 255 255 255
33.0000 68.0000 363.7208 255 255 255
34.0000 68.0000 363.9308 255 255 255
35.0000 68.0000 364.2724 255 255 255
36.0000 68.0000 364.7629 255 255 255
37.0000 68.0000 365.2934 255 255 255
38.0000 68.0000 365.8984 255 255 255
39.0000 68.0000 366.5640 255 255 255
40.0000 68.0000 367.2054 255 255 255
41.0000 68.0000 367.9197 255 255 255
42.0000 68.0000 368.6811 255 255 255
43.0000 68.0000 369.3899 255 255 255
44.0000 68.0000 370.0475 255 255 255
45.0000 68.0000 370.7912 255 255 255
46.0000 68.0000 371.5599 255 255 255
47.0000 68.0000 372.3377 255 255 255
48.0000 68.0000 373.1328 255 255 255
49.0000 68.0000 374.0108 255 255 255
50.0000 68.0000 374.9334 255 255 255
51.0000 68.0000 375.8553 255 255 255
52.0000 68.0000 376.8477 255 255 255
53.0000 68.0000 377.9327 255 255 255
54.0000 68.0000 378.8681 255 255 255
55.0000 68.0000 379.8745 255 255 255
56.0000 68.0000 380.9442 255 255 255
57.0000 68.0000 382.1293 255 255 255
58.0000 68.0000 383.4492 255 255 255
59.0000 68.0000 384.9129 255 255 255
60.0000 68.0000 386.6322 255 255 255
61.0000 68.0000 388.3468 255 255 255
62.0000 68.0000 390.1270 255 255 255
63.0000 68.0000 392.0844 255 255 255
64.0000 68.0000 394.0805 255 255 255
65.0000 68.0000 396.0033 255 255 255
66.0000 68.0000 398.0941 255 255 255
67.0000 68.0000 400.2663 255 255 255
68.0000 68.0000 402.2979 255 255 255
69.0000 68.0000 404.6766 255 255 255
70.0000 68.0000 407.3536 255 255 255
71.0000 68.0000 409.9959 255 255 255
72.0000 68.0000 412.5800 255 255 255
73.0000 68.0000 415.5180 255 255 255
74.0000 68.0000 418.5509 255 255 255
75.0000 68.0000 421.4062 255 255 255
76.0000 68.0000 423.9106 255 255 255
77.0000 68.0000 426.3508 255 255 255
78.0000 68.0000 429.3681 255 255 255
79.0000 68.0000 432.7714 255 255 255
80.0000 68.0000 436.1118 0 0 0
81.0000 68.0000 437.4573 0 0 0
82.0000 68.0000 437.8625 0 0 0
83.0000 68.0000 438.5754 0 0 0
84.0000 68.0000 439.5813 0 0 0
85.0000 68.0000 440.9237 0 0 0
86.0000 68.0000 442.4144 0 0 0
87.0000 68.0000 443.7666 0 0 0
88.0000 68.0000 444.6689 0 0 0
89.0000 68.0000 445.2547 0 0 0
90.0000 68.0000 445.8739 0 0 0
91.0000 68.0000 446.4884 0 0 0
92.0000 68.0000 446.9993 0 0 0
93.0000 68.0000 447.5058 0 0 0
94.0000 68.0000 448.1432 0 0 0
95.0000 68.0000 448.6580 0 0 0
96.0000 68.0000 449.0754 0 0 0
97.0000 68.0000 449.4638 0 0 0
98.0000 68.0000 449.4008 0 0 0
99.0000 68.0000 449.2332 0 0 0
100.0000 68.0000 449.5792 0 0 0
101.0000 68.0000 450.3388 0 0 0
102.0000 68.0000 451.0471 255 255 255
103.0000 68.0000 451.7001 0 0 0
104.0000 68.0000 452.4490 0 0 0
105.0000 68.0000 453.4007 0 0 0
106.0000 68.0000 454.3900 0 0 0
107.0000 68.0000 455.2293 0 0 0
108.0000 68.0000 456.0821 0 0 0
109.0000 68.0000 456.9386 0 0 0
110.0000 68.0000 457.3909 0 0 0
111.0000 68.0000 457.3906 0 0 0
112.0000 68.0000 456.7037 0 0 0
113.0000 68.0000 457.6103 0 0 0
114.0000 68.0000 458.7176 255 255 255
115.0000 68.0000 459.8289 255 255 255
116.0000 68.0000 460.9212 255 255 255
117.0000 68.0000 462.3298 255 255 255
118.0000 68.0000 463.5267 255 255 255
119.0000 68.0000 464.0605 255 255 255
120.0000 68.0000 464.2410 255 255 255
121.0000 68.0000 464.4963 255 255 255
122.0000 68.0000 464.9761 0 0 0
123.0000 68.0000 465.5778 0 0 0
124.0000 68.0000 465.4699 0 0 0
125.0000 68.0000 465.6269 0 0 0
126.0000 68.0000 465.5158 0 0 0
127.0000 68.0000 464.6568 0 0 0
128.0000 68.0000 463.4842 0 0 0
129.0000 68.0000 461.5621 255 255 255
130.0000 68.0000 458.9955 255 255 255
131.0000 68.0000 457.2233 255 255 255
132.0000 68.0000 455.4258 255 255 255
133.0000 68.0000 453.7188 255 255 255
134.0000 68.0000 452.0917 255 255 255
135.0000 68.0000 450.6642 255 255 255
136.0000 68.0000 448.6043 255 255 255
137.0000 68.0000 446.9266 255 255 255
138.0000 68.0000 445.5237 255 255 255
139.0000 68.0000 444.6741 255 255 255
140.0000 68.0000 443.3283 255 255 255
